# .PCD v0.7 - Point Cloud Data file format
VERSION 0.7
FIELDS x y z rgb
SIZE 4 4 4 4
TYPE F F F F
COUNT 1 1 1 1
WIDTH 1017
HEIGHT 1
VIEWPOINT 0 0 0 1 0 0 0
POINTS 1017
DATA ascii
-0.16880085 0.16874552 2.1419992 3.5733111e-43
-0.15015298 0.16953544 2.1419992 3.5733111e-43
-0.13103104 0.16953544 2.1419992 3.5733111e-43
-0.11017071 0.16953544 2.1419992 3.5733111e-43
-0.089310393 0.16953544 2.1419992 3.5733111e-43
-0.070188418 0.16953544 2.1419992 3.5733111e-43
-0.051066458 0.16953544 2.1419992 3.5733111e-43
-0.030206135 0.16953544 2.1419992 3.5733111e-43
-0.010125075 0.16767776 2.1419992 3.5733111e-43
0.0093898531 0.16567363 2.142 3.5733111e-43
0.029477574 0.16490124 2.142 3.5733111e-43
0.050021835 0.16885084 2.1419992 3.5733111e-43
0.070618764 0.16953544 2.1419992 3.5733111e-43
0.088499047 0.17276289 2.1420002 3.5733111e-43
0.11303477 0.16779767 2.1420002 3.5733111e-43
0.13021971 0.16531503 2.1420002 3.5733111e-43
0.15279581 0.16842955 2.1419997 3.5733111e-43
0.16890302 0.16953546 2.1419995 3.5733111e-43
0.18187383 0.16084631 2.1420002 3.5733111e-43
-0.58786899 0.19150457 2.156364 3.5733111e-43
-0.57038784 0.19161151 2.1509378 3.5733111e-43
-0.55057269 0.18872799 2.1473334 3.5733111e-43
-0.53110361 0.18834418 2.1432798 3.5733111e-43
-0.51347029 0.18691382 2.1420002 3.5733111e-43
-0.4856565 0.19038947 2.1419995 3.5733111e-43
-0.47001129 0.19038945 2.1419992 3.5733111e-43
-0.45287606 0.18939641 2.1419995 3.5733111e-43
-0.43052569 0.18567254 2.1420002 3.5733111e-43
-0.36397135 0.19038951 2.1420002 3.5733111e-43
-0.35006443 0.19038945 2.1419992 3.5733111e-43
-0.32920414 0.19038944 2.1419992 3.5733111e-43
-0.31008214 0.19038948 2.1419992 3.5733111e-43
-0.29209393 0.18698935 2.1419997 3.5733111e-43
-0.2770533 0.18170033 2.1420002 3.5733111e-43
-0.16319069 0.18256925 2.1420002 3.5733111e-43
-0.14774606 0.1865128 2.1420002 3.5733111e-43
-0.13103104 0.19038944 2.1419992 3.5733111e-43
-0.1101707 0.19038945 2.1419992 3.5733111e-43
-0.089310393 0.1903895 2.1419992 3.5733111e-43
-0.070188418 0.19038947 2.1419992 3.5733111e-43
-0.051066454 0.1903895 2.1419992 3.5733111e-43
-0.03129261 0.18995503 2.1419992 3.5733111e-43
-0.018037612 0.18343818 2.1420002 3.5733111e-43
0.049758442 0.18170033 2.1420002 3.5733111e-43
0.070618771 0.18170033 2.1420002 3.5733111e-43
0.089740731 0.18170033 2.1420002 3.5733111e-43
0.15679179 0.18467949 2.1420002 3.5733111e-43
0.16622859 0.18170033 2.1420002 3.5733111e-43
0.7705971 0.19063661 2.1552353 3.5733111e-43
-0.60711867 0.21382554 2.1559229 3.5733111e-43
-0.59012938 0.21045694 2.1485312 3.5733111e-43
-0.57268548 0.20528845 2.144182 3.5733111e-43
-0.48565656 0.20429219 2.1420002 3.5733111e-43
-0.46951467 0.210747 2.1419995 3.5733111e-43
-0.45129842 0.21175463 2.1419992 3.5733111e-43
-0.43116796 0.21262179 2.1419992 3.5733111e-43
-0.39004675 0.21819489 2.1420002 3.5733111e-43
-0.3662892 0.2129814 2.142 3.5733111e-43
-0.35006446 0.2112435 2.1419992 3.5733111e-43
-0.3292042 0.21124348 2.1419992 3.5733111e-43
-0.31088448 0.21017408 2.1419995 3.5733111e-43
-0.12646782 0.20841959 2.1420002 3.5733111e-43
-0.11017071 0.21124348 2.1419992 3.5733111e-43
-0.089310393 0.2112435 2.1419992 3.5733111e-43
-0.071057603 0.20950572 2.1419995 3.5733111e-43
-0.053673998 0.20516114 2.1420002 3.5733111e-43
-0.033682853 0.20255436 2.1420002 3.5733111e-43
0.77657843 0.2004728 2.1570001 3.5733111e-43
-0.6087296 0.22979856 2.153034 3.5733111e-43
-0.59293622 0.22789097 2.1433334 3.5733111e-43
-0.46392706 0.22601515 2.1420002 3.5733111e-43
-0.45026854 0.22998729 2.1419995 3.5733111e-43
-0.43002903 0.23035966 2.1419992 3.5733111e-43
-0.41221085 0.23296653 2.1420002 3.5733111e-43
-0.38830841 0.22905639 2.1420002 3.5733111e-43
-0.36883876 0.22896948 2.1419997 3.5733111e-43
-0.35006443 0.23035969 2.1419992 3.5733111e-43
-0.33215934 0.22914323 2.1419997 3.5733111e-43
-0.31529725 0.22340839 2.1420002 3.5733111e-43
-0.10843235 0.22514625 2.1420002 3.5733111e-43
-0.098002188 0.22514623 2.1420002 3.5733111e-43
-0.60898232 0.24995872 2.1511858 3.5733111e-43
-0.5966633 0.24972419 2.1420002 3.5733111e-43
-0.44725463 0.2436305 2.1420002 3.5733111e-43
-0.430029 0.24600022 2.1419995 3.5733111e-43
-0.41090709 0.24947585 2.1419992 3.5733111e-43
-0.36223298 0.24078675 2.1420002 3.5733111e-43
-0.35006443 0.24078675 2.1420002 3.5733111e-43
-0.27183825 0.25468943 2.1420004 3.5733111e-43
-0.64835608 0.27572301 2.1569998 3.5733111e-43
-0.62856156 0.27154991 2.1570005 3.5733111e-43
-0.60871828 0.26980513 2.1477146 3.5733111e-43
-0.59706968 0.27111986 2.1420002 3.5733111e-43
-0.26836148 0.26337862 2.1420002 3.5733111e-43
-0.24750118 0.27221891 2.1419997 3.5733111e-43
-0.2316076 0.2752952 2.1420002 3.5733111e-43
-0.2134293 0.27589101 2.1420002 3.5733111e-43
-0.19535036 0.27206779 2.1420002 3.5733111e-43
0.19751908 0.27901912 2.1420002 3.5733111e-43
0.20794924 0.27901912 2.1420002 3.5733111e-43
0.2305479 0.27901912 2.1420002 3.5733111e-43
0.24271643 0.27901912 2.1420002 3.5733111e-43
-0.66511112 0.28997311 2.1569998 3.5733111e-43
-0.65010661 0.28972316 2.1570001 3.5733111e-43
-0.62910008 0.2897231 2.1570001 3.5733111e-43
-0.60937369 0.28995007 2.1540005 3.5733111e-43
-0.59057498 0.2911177 2.1469526 3.5733111e-43
-0.57518208 0.29726639 2.1420002 3.5733111e-43
-0.24827379 0.28732216 2.142 3.5733111e-43
-0.23142135 0.28379819 2.1420002 3.5733111e-43
-0.21447232 0.28249481 2.1420002 3.5733111e-43
0.074095488 0.29465964 2.1420002 3.5733111e-43
0.090513341 0.29504588 2.142 3.5733111e-43
0.10190925 0.29813534 2.1420002 3.5733111e-43
0.19447646 0.29206249 2.1516249 3.5733111e-43
0.21095483 0.28215018 2.1459999 3.5733111e-43
0.23193868 0.28581727 2.1495001 3.5733111e-43
0.24923454 0.29084933 2.1466665 3.5733111e-43
0.26010004 0.29639748 2.1420002 3.5733111e-43
-0.6641109 0.30372313 2.1570001 3.5733111e-43
-0.65010661 0.30372313 2.1569998 3.5733111e-43
-0.63435179 0.30372313 2.1569998 3.5733111e-43
-0.5908286 0.30426955 2.1546664 3.5733111e-43
-0.57109129 0.3113986 2.1474781 3.5733111e-43
0.052702781 0.31152749 2.1437781 3.5733111e-43
0.070784941 0.31102073 2.1469002 3.5733111e-43
0.090475932 0.3103697 2.1516194 3.5733111e-43
0.10557076 0.30851561 2.1437652 3.5733111e-43
0.19365066 0.30197313 2.1570001 3.5733111e-43
0.25502774 0.30886146 2.1481111 3.5733111e-43
0.26010004 0.30682451 2.1420002 3.5733111e-43
-0.56601602 0.33004078 2.1517498 3.5733111e-43
-0.55553657 0.32962683 2.1433334 3.5733111e-43
0.033070184 0.33532494 2.1420002 3.5733111e-43
0.049681418 0.32973665 2.1475937 3.5733111e-43
0.069906279 0.32890937 2.1564405 3.5733111e-43
0.097371303 0.32472318 2.1570001 3.5733111e-43
0.10087237 0.32472318 2.1570001 3.5733111e-43
0.23664354 0.33762398 2.1500001 3.5733111e-43
0.24702212 0.32985461 2.1492307 3.5733111e-43
-0.56508923 0.34916964 2.1554441 3.5733111e-43
-0.55529696 0.35124668 2.148 3.5733111e-43
-0.01456089 0.35895956 2.1420002 3.5733111e-43
0.014991236 0.34853256 2.1420002 3.5733111e-43
0.028565332 0.34763867 2.1477146 3.5733111e-43
0.05058787 0.34431294 2.1559997 3.5733111e-43
0.067612231 0.34222323 2.1569998 3.5733111e-43
0.19404237 0.35374606 2.1420002 3.5733111e-43
0.2081767 0.35188359 2.1442857 3.5733111e-43
0.22993281 0.34443262 2.1453333 3.5733111e-43
-0.5608294 0.36847332 2.1570001 3.5733111e-43
-0.55026394 0.36938035 2.1476109 3.5733111e-43
-0.026041446 0.37316519 2.1465716 3.5733111e-43
-0.0076074484 0.36706954 2.1420004 3.5733111e-43
-0.5498684 0.39109957 2.1524501 3.5733111e-43
-0.53954571 0.39371625 2.1420002 3.5733111e-43
-0.067380704 0.39421079 2.1446669 3.5733111e-43
-0.04951233 0.38820943 2.1500001 3.5733111e-43
-0.032168195 0.38422334 2.1570001 3.5733111e-43
-0.5608294 0.41397345 2.1570001 3.5733111e-43
-0.54964179 0.41147143 2.1537697 3.5733111e-43
-0.53411335 0.40957403 2.1420002 3.5733111e-43
-0.46305788 0.41804597 2.1420002 3.5733111e-43
-0.45088935 0.41804597 2.1420002 3.5733111e-43
-0.43350574 0.41804597 2.1420002 3.5733111e-43
-0.1074651 0.41650522 2.1460001 3.5733111e-43
-0.088421158 0.40837044 2.1460001 3.5733111e-43
-0.58834702 0.43548056 2.1563635 3.5733111e-43
-0.56932104 0.43015572 2.1540594 3.5733111e-43
-0.5499922 0.43069959 2.1480591 3.5733111e-43
-0.53152257 0.43074572 2.1419995 3.5733111e-43
-0.4646326 0.427468 2.1449091 3.5733111e-43
-0.44971013 0.42726204 2.1446667 3.5733111e-43
-0.43350577 0.42673516 2.1420002 3.5733111e-43
-0.16405988 0.43368652 2.1420002 3.5733111e-43
-0.15017784 0.43335021 2.1423805 3.5733111e-43
-0.13317326 0.42908114 2.1434546 3.5733111e-43
-0.11123029 0.42305592 2.1542499 3.5733111e-43
-0.92143935 0.44722354 2.1570001 3.5733111e-43
-0.91793829 0.44722354 2.1570001 3.5733111e-43
-0.62734967 0.45947361 2.1570001 3.5733111e-43
-0.60811472 0.45223975 2.1551743 3.5733111e-43
-0.59054637 0.44935676 2.1504672 3.5733111e-43
-0.57000118 0.45019013 2.1448715 3.5733111e-43
-0.54997593 0.45106488 2.1419992 3.5733111e-43
-0.5325923 0.45106494 2.1419992 3.5733111e-43
-0.18740357 0.45379576 2.1419997 3.5733111e-43
-0.17035902 0.44990838 2.1484447 3.5733111e-43
-0.1517235 0.44829544 2.1497645 3.5733111e-43
-0.13675497 0.44053924 2.1500001 3.5733111e-43
0.079310566 0.45975405 2.1420002 3.5733111e-43
0.086957343 0.45103633 2.1446667 3.5733111e-43
-0.98795956 0.4752236 2.1569998 3.5733111e-43
-0.74880981 0.47374281 2.1569998 3.5733111e-43
-0.73054159 0.47125086 2.1560001 3.5733111e-43
-0.70988142 0.47117364 2.1552005 3.5733111e-43
-0.69040293 0.4717432 2.1542907 3.5733111e-43
-0.6696347 0.47314942 2.153116 3.5733111e-43
-0.64983022 0.47199094 2.1502967 3.5733111e-43
-0.62989432 0.47044671 2.1504853 3.5733111e-43
-0.60974467 0.47070354 2.1501396 3.5733111e-43
-0.59041673 0.47019288 2.1500006 3.5733111e-43
-0.57136929 0.47148797 2.1494844 3.5733111e-43
-0.55046993 0.47060826 2.1439197 3.5733111e-43
-0.53085399 0.47018117 2.1419992 3.5733111e-43
-0.51118302 0.47255918 2.142 3.5733111e-43
-0.49782509 0.47713241 2.1420002 3.5733111e-43
-0.20404217 0.47539458 2.1420002 3.5733111e-43
-0.18902391 0.47134435 2.1435237 3.5733111e-43
-0.17362691 0.46646652 2.1529164 3.5733111e-43
0.057109028 0.47697365 2.1570001 3.5733111e-43
-1.0075338 0.49129182 2.1570003 3.5733111e-43
-0.98970997 0.48922363 2.1570001 3.5733111e-43
-0.9757058 0.48922363 2.1569998 3.5733111e-43
-0.76661426 0.489418 2.1570005 3.5733111e-43
-0.749726 0.48911807 2.1565337 3.5733111e-43
-0.72984701 0.49087977 2.1502421 3.5733111e-43
-0.71081156 0.49112469 2.1500006 3.5733111e-43
-0.69011915 0.49000889 2.1463871 3.5733111e-43
-0.6707018 0.48879638 2.1425157 3.5733111e-43
-0.64975774 0.48477882 2.1419997 3.5733111e-43
-0.62994045 0.48408368 2.1420004 3.5733111e-43
-0.60956019 0.48851979 2.1440566 3.5733111e-43
-0.59103048 0.49132013 2.1487885 3.5733111e-43
-0.57122332 0.49112457 2.1500006 3.5733111e-43
-0.55053437 0.49137387 2.1500006 3.5733111e-43
-0.52983695 0.48937574 2.143548 3.5733111e-43
-0.50999361 0.48929718 2.1419992 3.5733111e-43
-0.49666616 0.49103504 2.1420002 3.5733111e-43
-0.20404217 0.4858216 2.1420002 3.5733111e-43
-0.19440216 0.48408368 2.1420002 3.5733111e-43
0.027941447 0.49528798 2.1484001 3.5733111e-43
0.051686335 0.48300391 2.1496003 3.5733111e-43
-1.0081257 0.50875366 2.1570005 3.5733111e-43
-0.98970997 0.51022369 2.1570001 3.5733111e-43
-0.97236401 0.51149637 2.1570003 3.5733111e-43
-0.95820057 0.51897377 2.1570001 3.5733111e-43
-0.76564181 0.50147372 2.1570001 3.5733111e-43
-0.74838668 0.50522381 2.1569998 3.5733111e-43
-0.73130387 0.51054627 2.1546671 3.5733111e-43
-0.71081161 0.5103122 2.1500006 3.5733111e-43
-0.68880486 0.50985163 2.1419992 3.5733111e-43
-0.67731082 0.50797898 2.1420002 3.5733111e-43
-0.60212672 0.5014621 2.1420002 3.5733111e-43
-0.5881266 0.50457495 2.1425717 3.5733111e-43
-0.56893241 0.5084424 2.1437142 3.5733111e-43
-0.55083728 0.50930613 2.1469231 3.5733111e-43
-0.53077614 0.51056004 2.1426849 3.5733111e-43
-0.50999355 0.51015139 2.1419992 3.5733111e-43
-0.4909915 0.5109303 2.1419992 3.5733111e-43
-0.47696474 0.51884049 2.1420002 3.5733111e-43
0.0080377944 0.51536483 2.1420002 3.5733111e-43
-1.0037143 0.5242238 2.1570001 3.5733111e-43
-0.98919523 0.53081226 2.1570001 3.5733111e-43
-0.97045439 0.53122401 2.1570005 3.5733111e-43
-0.95224881 0.53262401 2.1570005 3.5733111e-43
-0.93119234 0.5374738 2.1569998 3.5733111e-43
-0.90918565 0.5382238 2.1569998 3.5733111e-43
-0.72537959 0.53122383 2.1570001 3.5733111e-43
-0.70906675 0.52949989 2.1500006 3.5733111e-43
-0.69129723 0.53038847 2.148154 3.5733111e-43
-0.67392099 0.53135288 2.1419997 3.5733111e-43
-0.50621009 0.52804071 2.1420002 3.5733111e-43
-0.48913324 0.5310052 2.1419992 3.5733111e-43
-0.47348803 0.53398436 2.1420002 3.5733111e-43
-0.021664992 0.53997386 2.1570001 3.5733111e-43
-0.012210977 0.5326336 2.1495001 3.5733111e-43
-0.9685446 0.54633743 2.1569998 3.5733111e-43
-0.95012122 0.54966629 2.1570005 3.5733111e-43
-0.93019193 0.55047399 2.1570005 3.5733111e-43
-0.90918559 0.55047399 2.1570005 3.5733111e-43
-0.88992971 0.55047393 2.1570005 3.5733111e-43
-0.87125736 0.55125177 2.1570005 3.5733111e-43
-0.85842013 0.55572391 2.1570001 3.5733111e-43
-0.74288487 0.55572391 2.1570001 3.5733111e-43
-0.72987115 0.5513925 2.1547506 3.5733111e-43
-0.71046764 0.5505271 2.1497583 3.5733111e-43
-0.69052225 0.54964495 2.1475766 3.5733111e-43
-0.67011589 0.55089378 2.1419995 3.5733111e-43
-0.48859835 0.54905212 2.1419995 3.5733111e-43
-0.47061595 0.55057484 2.1419997 3.5733111e-43
-0.45958114 0.55359715 2.1420002 3.5733111e-43
-0.33268082 0.55707288 2.1420002 3.5733111e-43
-0.065216005 0.55915344 2.1500001 3.5733111e-43
-0.049374156 0.55498302 2.1440001 3.5733111e-43
-0.032118484 0.54923159 2.1536665 3.5733111e-43
-0.94375861 0.56753641 2.1569998 3.5733111e-43
-0.93019211 0.56972402 2.1570001 3.5733111e-43
-0.90918553 0.56972402 2.1570001 3.5733111e-43
-0.88992965 0.56972402 2.1570005 3.5733111e-43
-0.87067389 0.56972402 2.1570001 3.5733111e-43
-0.85334361 0.57199895 2.1570001 3.5733111e-43
-0.76660222 0.5748176 2.1564164 3.5733111e-43
-0.74877805 0.57048315 2.1510351 3.5733111e-43
-0.7298643 0.5679909 2.1448216 3.5733111e-43
-0.70990503 0.5657621 2.1419997 3.5733111e-43
-0.69202483 0.56327951 2.1420002 3.5733111e-43
-0.67339951 0.56228638 2.1420002 3.5733111e-43
-0.48160037 0.56170708 2.1420002 3.5733111e-43
-0.46914214 0.56628352 2.1419997 3.5733111e-43
-0.45958114 0.56576204 2.1420002 3.5733111e-43
-0.34577656 0.57056016 2.1444616 3.5733111e-43
-0.33051389 0.5703696 2.1487696 3.5733111e-43
-0.31743029 0.57169074 2.1446669 3.5733111e-43
-0.14070129 0.57847399 2.1570001 3.5733111e-43
-0.12932283 0.57847399 2.1570001 3.5733111e-43
-0.11298634 0.57545692 2.14575 3.5733111e-43
-0.085732065 0.56849515 2.1484001 3.5733111e-43
-0.065216005 0.5626421 2.1500001 3.5733111e-43
-0.059758261 0.56054854 2.1420002 3.5733111e-43
-1.0037143 0.59947401 2.1570001 3.5733111e-43
-0.98971015 0.59947401 2.1569998 3.5733111e-43
-0.97045434 0.59947401 2.1570001 3.5733111e-43
-0.94925332 0.59422398 2.1570001 3.5733111e-43
-0.93027049 0.59039974 2.1558332 3.5733111e-43
-0.90927535 0.59039974 2.1558332 3.5733111e-43
-0.8897084 0.5906297 2.1556456 3.5733111e-43
-0.87004346 0.59029359 2.1554444 3.5733111e-43
-0.85107917 0.59100622 2.1570003 3.5733111e-43
-0.83041161 0.59947401 2.1570001 3.5733111e-43
-0.80864 0.59463704 2.1561248 3.5733111e-43
-0.78955489 0.59011966 2.1530006 3.5733111e-43
-0.77059805 0.58826464 2.1458058 3.5733111e-43
-0.75186616 0.58265603 2.1437778 3.5733111e-43
-0.56388277 0.5953052 2.1420002 3.5733111e-43
-0.55692935 0.59704304 2.1420002 3.5733111e-43
-0.34201014 0.58074391 2.1460001 3.5733111e-43
-0.32808158 0.58306324 2.1459999 3.5733111e-43
-0.31762764 0.58074391 2.1460001 3.5733111e-43
-0.14070129 0.58197397 2.1570001 3.5733111e-43
-0.12932283 0.58197397 2.1570001 3.5733111e-43
-0.11969489 0.58197397 2.1570001 3.5733111e-43
-1.1332538 0.61522406 2.1570001 3.5733111e-43
-1.0867972 0.61158937 2.1569998 3.5733111e-43
-1.0725238 0.61428165 2.1569998 3.5733111e-43
-1.0481342 0.61369276 2.1569998 3.5733111e-43
-1.029371 0.61049509 2.1566961 3.5733111e-43
-1.0109859 0.61042881 2.1533942 3.5733111e-43
-0.98984957 0.61138451 2.149714 3.5733111e-43
-0.96969402 0.61160237 2.1501544 3.5733111e-43
-0.95006412 0.60986972 2.1504672 3.5733111e-43
-0.93057048 0.60977304 2.1491117 3.5733111e-43
-0.90986508 0.61030787 2.1455998 3.5733111e-43
-0.88890767 0.6098485 2.1442852 3.5733111e-43
-0.86971164 0.61033601 2.1459999 3.5733111e-43
-0.8507368 0.61136955 2.1512606 3.5733111e-43
-0.8305546 0.61179018 2.1536472 3.5733111e-43
-0.80962533 0.61058778 2.1491215 3.5733111e-43
-0.79286593 0.60653734 2.1442857 3.5733111e-43
-0.77943945 0.6022566 2.1420002 3.5733111e-43
-0.68348199 0.61685437 2.1420002 3.5733111e-43
-0.66887969 0.6123361 2.1419992 3.5733111e-43
-0.6490624 0.61094582 2.1419992 3.5733111e-43
-0.63032675 0.61191124 2.1419995 3.5733111e-43
-0.6145125 0.61333537 2.1420002 3.5733111e-43
-0.59100121 0.60538471 2.1420002 3.5733111e-43
-0.56388277 0.6022566 2.1420002 3.5733111e-43
-0.55345261 0.6022566 2.1420002 3.5733111e-43
-1.1332539 0.62747413 2.1569998 3.5733111e-43
-1.0649831 0.62222409 2.1569998 3.5733111e-43
-1.0489265 0.62819803 2.1570005 3.5733111e-43
-1.0309297 0.62989569 2.1516902 3.5733111e-43
-1.0103804 0.62926549 2.1437497 3.5733111e-43
-0.99108487 0.62875861 2.1419995 3.5733111e-43
-0.96749896 0.62673706 2.1430433 3.5733111e-43
-0.9498083 0.62870967 2.1433327 3.5733111e-43
-0.93115139 0.62932444 2.1427269 3.5733111e-43
-0.90981644 0.63006186 2.1419992 3.5733111e-43
-0.89004254 0.62636906 2.1420002 3.5733111e-43
-0.86983424 0.62311059 2.1420002 3.5733111e-43
-0.84897387 0.62426919 2.1420002 3.5733111e-43
-0.82972169 0.623882 2.1446664 3.5733111e-43
-0.80992174 0.62443435 2.1431429 3.5733111e-43
-0.68382961 0.62658626 2.1420002 3.5733111e-43
-0.66930187 0.62968951 2.1419995 3.5733111e-43
-0.6490624 0.62658626 2.142 3.5733111e-43
-0.63080961 0.6257174 2.1420002 3.5733111e-43
-0.61777192 0.62484843 2.1420002 3.5733111e-43
-1.1297351 0.6521104 2.1563001 3.5733111e-43
-1.1139981 0.65897423 2.1570001 3.5733111e-43
-1.0641079 0.65809917 2.1570001 3.5733111e-43
-1.0491184 0.65027165 2.155385 3.5733111e-43
-1.0296282 0.65018135 2.1453333 3.5733111e-43
-1.0138913 0.64774257 2.1419997 3.5733111e-43
-0.96022892 0.64917821 2.1420002 3.5733111e-43
-0.94979882 0.64917815 2.1419992 3.5733111e-43
-0.93146574 0.64883137 2.1434538 3.5733111e-43
-0.90981644 0.64917827 2.1419992 3.5733111e-43
-0.89764798 0.65612948 2.1420002 3.5733111e-43
-1.1259696 0.66987497 2.1515672 3.5733111e-43
-1.1113049 0.67212749 2.1565337 3.5733111e-43
-1.0918664 0.67334926 2.1570005 3.5733111e-43
-1.0687256 0.67261213 2.1570005 3.5733111e-43
-1.0487111 0.6697706 2.1523337 3.5733111e-43
-1.027709 0.66924214 2.1419997 3.5733111e-43
-1.0120775 0.67328119 2.1419997 3.5733111e-43
-0.98760808 0.67741799 2.1420002 3.5733111e-43
-0.96784449 0.67325962 2.1419997 3.5733111e-43
-0.95029628 0.66987896 2.1470668 3.5733111e-43
-0.93082154 0.66983867 2.1500006 3.5733111e-43
-0.9084366 0.66994905 2.1437137 3.5733111e-43
-0.89764792 0.6700322 2.1420002 3.5733111e-43
-1.1238317 0.69079775 2.1458402 3.5733111e-43
-1.1104763 0.69104731 2.1520276 3.5733111e-43
-1.0916742 0.6909883 2.1565628 3.5733111e-43
-1.0709878 0.69081175 2.1565006 3.5733111e-43
-1.0491619 0.69029069 2.1502008 3.5733111e-43
-1.0304577 0.69022244 2.1472178 3.5733111e-43
-1.0106983 0.68966824 2.1435993 3.5733111e-43
-0.98982245 0.68966824 2.1435993 3.5733111e-43
-0.96840501 0.68980592 2.1464446 3.5733111e-43
-0.9498564 0.68997794 2.1500006 3.5733111e-43
-0.93062323 0.69031113 2.1482711 3.5733111e-43
-0.91062039 0.69059306 2.1436467 3.5733111e-43
-0.89764798 0.68393487 2.1420002 3.5733111e-43
-1.1236347 0.71000224 2.1420004 3.5733111e-43
-1.1099789 0.70933712 2.1450963 3.5733111e-43
-1.090726 0.70852834 2.1473417 3.5733111e-43
-1.0706265 0.70905197 2.1472571 3.5733111e-43
-1.0486512 0.70983124 2.1462104 3.5733111e-43
-1.0295501 0.71010906 2.1476004 3.5733111e-43
-1.0111533 0.71107316 2.1497846 3.5733111e-43
-0.98998803 0.71090978 2.1500006 3.5733111e-43
-0.96904969 0.71090978 2.1500006 3.5733111e-43
-0.94929886 0.70914626 2.1463077 3.5733111e-43
-0.93079382 0.71006107 2.1425326 3.5733111e-43
-0.91503161 0.70768523 2.1420002 3.5733111e-43
-1.1236347 0.72911859 2.142 3.5733111e-43
-1.109728 0.72911859 2.1419992 3.5733111e-43
-1.0906061 0.72911859 2.1419992 3.5733111e-43
-1.0705826 0.72673696 2.1419995 3.5733111e-43
-1.047621 0.72580081 2.1419997 3.5733111e-43
-1.0295236 0.72881895 2.1419992 3.5733111e-43
-1.0113553 0.73049492 2.1466832 3.5733111e-43
-0.98995358 0.73138225 2.1486673 3.5733111e-43
-0.96904969 0.73009712 2.1500006 3.5733111e-43
-0.94865394 0.72957021 2.1433332 3.5733111e-43
-0.93207872 0.72883838 2.1419992 3.5733111e-43
-0.91850829 0.72042942 2.1420002 3.5733111e-43
-1.1236347 0.74997264 2.142 3.5733111e-43
-1.1097279 0.74997252 2.1419992 3.5733111e-43
-1.0906061 0.74997252 2.1419992 3.5733111e-43
-1.0768571 0.75076252 2.1420002 3.5733111e-43
-1.0280249 0.74128342 2.1420002 3.5733111e-43
-1.0099461 0.74545419 2.1419997 3.5733111e-43
-0.98827094 0.74819016 2.1424992 3.5733111e-43
-0.96899295 0.74901009 2.1437552 3.5733111e-43
-0.94979864 0.74997264 2.1419992 3.5733111e-43
-0.93466473 0.7468037 2.1420002 3.5733111e-43
-1.1247556 0.76985997 2.1441336 3.5733111e-43
-1.1097279 0.7708267 2.1419992 3.5733111e-43
-1.0913961 0.77035284 2.1419992 3.5733111e-43
-1.0784374 0.76213747 2.1420002 3.5733111e-43
-0.96370566 0.76387531 2.1420002 3.5733111e-43
-0.85434705 0.77193254 2.1420002 3.5733111e-43
-1.1263536 0.7909804 2.150667 3.5733111e-43
-1.1090291 0.79068041 2.1439998 3.5733111e-43
-1.0966903 0.78907388 2.1420002 3.5733111e-43
-1.12843 0.80981493 2.1528001 3.5733111e-43
-1.1094172 0.80997199 2.1428883 3.5733111e-43
-1.1270325 0.83067238 2.1484766 3.5733111e-43
-1.1105304 0.82884347 2.1419995 3.5733111e-43
-1.1236348 0.84381574 2.1420002 3.5733111e-43
-1.1132046 0.84381574 2.1420002 3.5733111e-43
0.81005132 -0.80495727 2.1730001 3.5733111e-43
0.82995391 -0.80646831 2.1730001 3.5733111e-43
0.8481769 -0.80352998 2.1730001 3.5733111e-43
0.79821044 -0.79236442 2.1730001 3.5733111e-43
0.80823809 -0.79192716 2.1675606 3.5733111e-43
0.83232224 -0.79204375 2.1650007 3.5733111e-43
0.84913272 -0.79153097 2.1707146 3.5733111e-43
0.81112593 -0.77554888 2.1706474 3.5733111e-43
0.82884693 -0.7750814 2.1687651 3.5733111e-43
0.84229851 -0.77826053 2.1730001 3.5733111e-43
0.67652774 -0.68305928 2.1730001 3.5733111e-43
0.68005478 -0.68305928 2.1730001 3.5733111e-43
0.85993367 -0.68305928 2.1730001 3.5733111e-43
0.87051475 -0.68305928 2.1730001 3.5733111e-43
0.67581421 -0.6707629 2.1707146 3.5733111e-43
0.68005478 -0.67159986 2.1730001 3.5733111e-43
0.85109264 -0.66906536 2.1721728 3.5733111e-43
0.86892325 -0.67052305 2.1670747 3.5733111e-43
0.88991642 -0.66992521 2.1670003 3.5733111e-43
0.90833324 -0.67123306 2.1680772 3.5733111e-43
0.67123723 -0.65308851 2.1730001 3.5733111e-43
0.85237199 -0.65451026 2.1712224 3.5733111e-43
0.86806053 -0.650002 2.1668825 3.5733111e-43
0.88722295 -0.65478265 2.1650002 3.5733111e-43
0.83348089 -0.62488073 2.1730001 3.5733111e-43
0.85091299 -0.6250183 2.1698003 3.5733111e-43
0.86906087 -0.6286971 2.1666558 3.5733111e-43
0.81447411 -0.60705495 2.1730001 3.5733111e-43
0.8264634 -0.61336756 2.1690004 3.5733111e-43
0.6356141 -0.58292162 2.1730001 3.5733111e-43
0.64302087 -0.58785802 2.1730001 3.5733111e-43
0.81038588 -0.59008926 2.1702003 3.5733111e-43
0.63243973 -0.57551712 2.1730001 3.5733111e-43
0.81492525 -0.57445449 2.1690004 3.5733111e-43
0.82342672 -0.5650081 2.1684287 3.5733111e-43
0.77175772 -0.54319566 2.1730001 3.5733111e-43
0.79056865 -0.54554635 2.1730001 3.5733111e-43
0.80350107 -0.54202038 2.1730001 3.5733111e-43
0.83285058 -0.55402631 2.1707146 3.5733111e-43
0.84229851 -0.54907233 2.1730001 3.5733111e-43
0.73472387 -0.52262753 2.1730001 3.5733111e-43
0.75059551 -0.52640533 2.1730001 3.5733111e-43
0.77087593 -0.53056103 2.1729999 3.5733111e-43
0.79083294 -0.52946281 2.1721108 3.5733111e-43
0.80809838 -0.52818239 2.1716669 3.5733111e-43
0.82466334 -0.52262753 2.1730001 3.5733111e-43
0.71312076 -0.50764215 2.1730001 3.5733111e-43
0.72943342 -0.51028663 2.1730001 3.5733111e-43
0.74177796 -0.5132249 2.1730001 3.5733111e-43
0.77528477 -0.51733857 2.1730001 3.5733111e-43
0.79196489 -0.51135468 2.1710002 3.5733111e-43
0.80723614 -0.51529998 2.1656671 3.5733111e-43
0.82466334 -0.51733857 2.1730001 3.5733111e-43
0.71414936 -0.49735805 2.1730001 3.5733111e-43
0.72716588 -0.4951753 2.1730001 3.5733111e-43
0.74001443 -0.49970871 2.1730001 3.5733111e-43
0.79291993 -0.4979457 2.1730001 3.5733111e-43
0.61480457 -0.42213732 2.1730001 3.5733111e-43
0.63156027 -0.42515153 2.1715002 3.5733111e-43
0.6479643 -0.42702374 2.1725295 3.5733111e-43
0.66241956 -0.42213732 2.1730001 3.5733111e-43
0.59339041 -0.40198889 2.1730001 3.5733111e-43
0.61174959 -0.4103398 2.1708465 3.5733111e-43
0.62889504 -0.41071981 2.1650007 3.5733111e-43
0.65127569 -0.41107786 2.1679094 3.5733111e-43
0.6639871 -0.41077581 2.1730001 3.5733111e-43
0.5718019 -0.38660637 2.1730001 3.5733111e-43
0.58959013 -0.38962111 2.1699657 3.5733111e-43
0.60526204 -0.39247927 2.1650004 3.5733111e-43
0.45079738 -0.36219579 2.1730001 3.5733111e-43
0.47019601 -0.36395875 2.1730001 3.5733111e-43
0.48808315 -0.3632032 2.1730001 3.5733111e-43
0.50899345 -0.36219576 2.1730001 3.5733111e-43
0.53015566 -0.36219579 2.1730001 3.5733111e-43
0.55207366 -0.36672917 2.1730001 3.5733111e-43
0.57023704 -0.37026602 2.1711996 3.5733111e-43
0.58648336 -0.37184468 2.1654215 3.5733111e-43
0.60199898 -0.3784273 2.1650002 3.5733111e-43
0.43536654 -0.34676963 2.1730001 3.5733111e-43
0.44915745 -0.34986591 2.1711178 3.5733111e-43
0.46970701 -0.35116863 2.1678576 3.5733111e-43
0.48904249 -0.35027391 2.1670744 3.5733111e-43
0.50964952 -0.35110778 2.1698003 3.5733111e-43
0.53015715 -0.3510412 2.1702311 3.5733111e-43
0.54896164 -0.35126716 2.1674619 3.5733111e-43
0.56596029 -0.35430974 2.1662312 3.5733111e-43
-0.028238771 -0.32399008 2.1690001 3.5733111e-43
-0.009481065 -0.32693604 2.1730001 3.5733111e-43
0.0063906028 -0.32693604 2.1730001 3.5733111e-43
0.029272119 -0.32281473 2.1690001 3.5733111e-43
0.43492571 -0.33046201 2.1730001 3.5733111e-43
0.45030671 -0.33079425 2.168077 3.5733111e-43
0.47022209 -0.33100188 2.1650007 3.5733111e-43
0.48903257 -0.33141518 2.1650007 3.5733111e-43
0.50762153 -0.33627135 2.1650004 3.5733111e-43
0.52878958 -0.33919892 2.1650002 3.5733111e-43
0.54401714 -0.33978438 2.1650002 3.5733111e-43
-0.047783133 -0.30727938 2.1722729 3.5733111e-43
-0.034677193 -0.31558168 2.1676669 3.5733111e-43
0.031875808 -0.31636608 2.1670005 3.5733111e-43
0.046770271 -0.30691046 2.1692357 3.5733111e-43
0.43095776 -0.30974695 2.1730001 3.5733111e-43
0.44983777 -0.31041485 2.1684284 3.5733111e-43
0.47022206 -0.30992395 2.1650007 3.5733111e-43
0.48701146 -0.3105095 2.1650007 3.5733111e-43
-0.12774858 -0.28382871 2.169364 3.5733111e-43
-0.10556303 -0.29093236 2.1703334 3.5733111e-43
-0.092188627 -0.28374654 2.1690001 3.5733111e-43
-0.076494783 -0.2810984 2.1730001 3.5733111e-43
-0.047058836 -0.28961864 2.170778 3.5733111e-43
-0.037997838 -0.28577214 2.1650002 3.5733111e-43
0.035483513 -0.28307465 2.1650002 3.5733111e-43
0.048287634 -0.29065129 2.1712224 3.5733111e-43
0.092119142 -0.2852208 2.1725001 3.5733111e-43
0.11024502 -0.28766224 2.1692669 3.5733111e-43
0.12860653 -0.28664458 2.1691909 3.5733111e-43
0.14253426 -0.28321397 2.1730001 3.5733111e-43
0.35556731 -0.2810984 2.1730001 3.5733111e-43
0.37159929 -0.28398326 2.1730001 3.5733111e-43
0.38990867 -0.28547251 2.1712611 3.5733111e-43
0.41123444 -0.28915429 2.1719677 3.5733111e-43
0.42994416 -0.28888059 2.1682947 3.5733111e-43
0.45033264 -0.28927332 2.1654217 3.5733111e-43
0.46997973 -0.2891489 2.1650007 3.5733111e-43
0.48533249 -0.2948181 2.1650004 3.5733111e-43
-0.14350849 -0.26523152 2.1730001 3.5733111e-43
-0.13436465 -0.27513251 2.1676667 3.5733111e-43
-0.084998287 -0.27479404 2.1650002 3.5733111e-43
-0.069275647 -0.26989028 2.1679094 3.5733111e-43
-0.049358767 -0.26967764 2.1698699 3.5733111e-43
-0.034371685 -0.26840413 2.1659415 3.5733111e-43
-0.0024180557 -0.26601157 2.1650002 3.5733111e-43
0.01101594 -0.26847929 2.170053 3.5733111e-43
0.027314138 -0.27327323 2.1701767 3.5733111e-43
0.04518801 -0.27580944 2.1730001 3.5733111e-43
0.07693135 -0.26523152 2.1730001 3.5733111e-43
0.088427909 -0.27025667 2.1678576 3.5733111e-43
0.10935584 -0.27438867 2.1650004 3.5733111e-43
0.13411149 -0.27106512 2.1660669 3.5733111e-43
0.14800115 -0.27016789 2.1730001 3.5733111e-43
0.35027677 -0.27052054 2.1730001 3.5733111e-43
0.3703838 -0.26975819 2.166867 3.5733111e-43
0.39115575 -0.26952451 2.1650007 3.5733111e-43
0.410483 -0.26952457 2.1650007 3.5733111e-43
0.4298104 -0.26952454 2.1650007 3.5733111e-43
0.45089471 -0.26952457 2.1650007 3.5733111e-43
0.46888334 -0.2696918 2.1650004 3.5733111e-43
-0.14333238 -0.25081512 2.1703336 3.5733111e-43
-0.13770908 -0.24142061 2.1650002 3.5733111e-43
-0.10959665 -0.2414206 2.1650002 3.5733111e-43
-0.08895798 -0.24379602 2.1674004 3.5733111e-43
-0.068361439 -0.24952121 2.1667504 3.5733111e-43
-0.049954727 -0.25070098 2.1692669 3.5733111e-43
-0.030580116 -0.2505587 2.1681111 3.5733111e-43
-0.0094489353 -0.25043046 2.1670005 3.5733111e-43
0.0072723613 -0.25024617 2.1730001 3.5733111e-43
0.072742991 -0.24826276 2.1730001 3.5733111e-43
0.084261902 -0.25195962 2.1650004 3.5733111e-43
0.15160619 -0.25682607 2.1690004 3.5733111e-43
0.16964133 -0.24972947 2.1702311 3.5733111e-43
0.184506 -0.24583866 2.1730001 3.5733111e-43
0.35179701 -0.2525259 2.1730001 3.5733111e-43
0.37048224 -0.2504822 2.1674449 3.5733111e-43
0.39115575 -0.2502031 2.1650007 3.5733111e-43
0.41021273 -0.25155428 2.1650007 3.5733111e-43
0.42954013 -0.25304049 2.1650007 3.5733111e-43
0.44913769 -0.25488707 2.1650004 3.5733111e-43
-0.24050201 -0.22115687 2.1730001 3.5733111e-43
-0.22817665 -0.2247116 2.1690001 3.5733111e-43
-0.20699517 -0.23173478 2.1730001 3.5733111e-43
-0.18972193 -0.2296939 2.1703334 3.5733111e-43
-0.17021802 -0.22654681 2.1667147 3.5733111e-43
-0.14908564 -0.22805712 2.1715188 3.5733111e-43
-0.13140246 -0.2321101 2.169667 3.5733111e-43
-0.11000164 -0.23702373 2.1730001 3.5733111e-43
-0.047797516 -0.23061286 2.1730001 3.5733111e-43
-0.030638823 -0.22992332 2.172555 3.5733111e-43
-0.0094666788 -0.2297323 2.1707773 3.5733111e-43
0.0099176401 -0.22997181 2.1730001 3.5733111e-43
0.025127988 -0.2306329 2.1730001 3.5733111e-43
0.05439578 -0.22570512 2.1723847 3.5733111e-43
0.069057971 -0.23073992 2.1686926 3.5733111e-43
0.17411932 -0.23527174 2.1666005 3.5733111e-43
0.18940163 -0.2280467 2.1684787 3.5733111e-43
0.20833221 -0.22204795 2.1718574 3.5733111e-43
0.23142385 -0.22224157 2.1698003 3.5733111e-43
0.25159019 -0.22481526 2.168556 3.5733111e-43
0.26950315 -0.22639333 2.169364 3.5733111e-43
0.28826138 -0.22504361 2.170778 3.5733111e-43
0.30266175 -0.22291985 2.1730001 3.5733111e-43
0.35556731 -0.23878674 2.1730001 3.5733111e-43
0.37320584 -0.23345819 2.1710002 3.5733111e-43
0.39065644 -0.22884175 2.1658425 3.5733111e-43
0.40345499 -0.22912514 2.1650002 3.5733111e-43
-0.26519129 -0.20235169 2.1730001 3.5733111e-43
-0.25085694 -0.21170411 2.1710002 3.5733111e-43
-0.23434553 -0.21682967 2.1650002 3.5733111e-43
-0.14680032 -0.2095253 2.1684787 3.5733111e-43
-0.13821794 -0.20881595 2.1730001 3.5733111e-43
-0.046514958 -0.21763091 2.1730001 3.5733111e-43
-0.028879771 -0.21674938 2.1730001 3.5733111e-43
-0.011496516 -0.21410491 2.1730001 3.5733111e-43
0.011429227 -0.21662346 2.1730001 3.5733111e-43
0.032707728 -0.21247754 2.1730001 3.5733111e-43
0.050195448 -0.20895708 2.1718569 3.5733111e-43
0.064348944 -0.21507317 2.1650002 3.5733111e-43
0.19612591 -0.21507317 2.1650002 3.5733111e-43
0.2107169 -0.21200617 2.1666849 3.5733111e-43
0.22761883 -0.21393298 2.1661432 3.5733111e-43
0.25059369 -0.21682967 2.1650002 3.5733111e-43
0.27192906 -0.21532409 2.1650002 3.5733111e-43
0.29083976 -0.21131809 2.1670005 3.5733111e-43
0.30596834 -0.20771408 2.1730001 3.5733111e-43
0.37672952 -0.20881595 2.1730001 3.5733111e-43
0.38951123 -0.2090746 2.1686924 3.5733111e-43
0.40882936 -0.20773724 2.1650004 3.5733111e-43
0.42102525 -0.20277771 2.1650002 3.5733111e-43
-0.28458998 -0.18237117 2.1730001 3.5733111e-43
-0.27425826 -0.18880464 2.1703336 3.5733111e-43
-0.16406447 -0.18169975 2.1650002 3.5733111e-43
-0.14878933 -0.18934467 2.1691487 3.5733111e-43
-0.13821794 -0.1882478 2.1730001 3.5733111e-43
0.054912578 -0.19075558 2.1703336 3.5733111e-43
0.29451936 -0.19048227 2.1650004 3.5733111e-43
0.30953753 -0.18931258 2.1717203 3.5733111e-43
0.32029694 -0.18413416 2.1730001 3.5733111e-43
0.37132141 -0.18660232 2.1730001 3.5733111e-43
0.3907007 -0.18992481 2.1692104 3.5733111e-43
0.410483 -0.19048221 2.1650007 3.5733111e-43
0.42844379 -0.18833542 2.1650007 3.5733111e-43
0.44518438 -0.18477361 2.1650002 3.5733111e-43
-0.32162389 -0.16297832 2.1730001 3.5733111e-43
-0.30917132 -0.16555908 2.1698003 3.5733111e-43
-0.28890443 -0.17456062 2.1690001 3.5733111e-43
-0.2782712 -0.17818676 2.1650002 3.5733111e-43
-0.16904643 -0.16776392 2.166539 3.5733111e-43
-0.15046588 -0.16992272 2.1716661 3.5733111e-43
-0.13102278 -0.16742104 2.1730001 3.5733111e-43
-0.11000165 -0.16474129 2.1730001 3.5733111e-43
0.031079862 -0.16297831 2.1730001 3.5733111e-43
0.052833043 -0.16792347 2.1685205 3.5733111e-43
0.064348944 -0.1711608 2.1650002 3.5733111e-43
0.29292205 -0.16812682 2.1650007 3.5733111e-43
0.30949298 -0.16990505 2.1714003 3.5733111e-43
0.32863358 -0.16922893 2.1729999 3.5733111e-43
0.35139897 -0.16826726 2.1730001 3.5733111e-43
0.36967546 -0.17003028 2.1730001 3.5733111e-43
0.39038268 -0.16983576 2.1705234 3.5733111e-43
0.41048303 -0.1694043 2.1650007 3.5733111e-43
0.4298104 -0.16940428 2.1650007 3.5733111e-43
0.45089468 -0.16940433 2.1650007 3.5733111e-43
0.468155 -0.16599461 2.1650004 3.5733111e-43
0.48252121 -0.16062181 2.1650002 3.5733111e-43
-0.32932967 -0.14888439 2.1700003 3.5733111e-43
-0.31692576 -0.15710881 2.1650002 3.5733111e-43
-0.22829664 -0.14536726 2.1695716 3.5733111e-43
-0.21096854 -0.14893995 2.169364 3.5733111e-43
-0.18746369 -0.15220585 2.1714764 3.5733111e-43
-0.1691945 -0.1506374 2.1730001 3.5733111e-43
-0.15056257 -0.14887445 2.1729994 3.5733111e-43
-0.1298153 -0.14939296 2.1729996 3.5733111e-43
-0.11000163 -0.14887442 2.1730001 3.5733111e-43
-0.099420525 -0.14887443 2.1730001 3.5733111e-43
-0.002426991 -0.1400595 2.1730001 3.5733111e-43
0.011576555 -0.1492257 2.1713161 3.5733111e-43
0.02728034 -0.15341775 2.1682947 3.5733111e-43
0.045021653 -0.15535231 2.1650002 3.5733111e-43
0.29188231 -0.14954576 2.168556 3.5733111e-43
0.30971581 -0.14887442 2.1730001 3.5733111e-43
0.327351 -0.15357572 2.1730001 3.5733111e-43
0.3907029 -0.14960395 2.1711714 3.5733111e-43
0.41013438 -0.15010417 2.1653082 3.5733111e-43
0.42893189 -0.15271756 2.1650004 3.5733111e-43
0.45157051 -0.15494697 2.1650004 3.5733111e-43
0.46934354 -0.15447406 2.1650004 3.5733111e-43
0.48252121 -0.15535231 2.1650002 3.5733111e-43
-0.32279104 -0.12923674 2.1690001 3.5733111e-43
-0.3177065 -0.12579671 2.1703336 3.5733111e-43
-0.22954123 -0.13128147 2.1678004 3.5733111e-43
-0.16422984 -0.13080381 2.1730001 3.5733111e-43
-0.15056255 -0.12948157 2.1730001 3.5733111e-43
-0.12893131 -0.13011046 2.1724999 3.5733111e-43
-0.11000163 -0.12948157 2.1730001 3.5733111e-43
-0.094037153 -0.12836809 2.1730001 3.5733111e-43
-0.04298792 -0.12419263 2.1730001 3.5733111e-43
-0.029624086 -0.12488285 2.1718574 3.5733111e-43
-0.0088361036 -0.1288733 2.1690004 3.5733111e-43
0.0094418703 -0.1347135 2.1650004 3.5733111e-43
0.23478048 -0.1219789 2.1650002 3.5733111e-43
0.29216272 -0.13149032 2.166455 3.5733111e-43
0.30971584 -0.12948157 2.1730001 3.5733111e-43
0.32865041 -0.12632675 2.1730001 3.5733111e-43
0.35027674 -0.1259556 2.1730001 3.5733111e-43
0.37127939 -0.12618238 2.1704741 3.5733111e-43
0.38965589 -0.1320955 2.1672404 3.5733111e-43
0.40984413 -0.13730834 2.1650004 3.5733111e-43
-0.30782816 -0.11164257 2.1690001 3.5733111e-43
-0.22204635 -0.11143992 2.1650002 3.5733111e-43
-0.21432665 -0.10758875 2.1698892 3.5733111e-43
-0.18935998 -0.10127378 2.1730001 3.5733111e-43
-0.16713962 -0.10444716 2.1730001 3.5733111e-43
-0.15004387 -0.10967389 2.1729996 3.5733111e-43
-0.12940034 -0.11008871 2.1729994 3.5733111e-43
-0.11000164 -0.11008871 2.1730001 3.5733111e-43
-0.090602942 -0.11008871 2.1729994 3.5733111e-43
-0.06847734 -0.10907418 2.1702502 3.5733111e-43
-0.049925745 -0.10984089 2.1679337 3.5733111e-43
-0.031534493 -0.11445106 2.1650004 3.5733111e-43
-0.011203186 -0.11225061 2.1650004 3.5733111e-43
0.0098811267 -0.10090095 2.1650002 3.5733111e-43
0.025694363 -0.10090095 2.1650002 3.5733111e-43
0.23126642 -0.11670941 2.1650002 3.5733111e-43
0.29627639 -0.11670941 2.1650002 3.5733111e-43
0.30995095 -0.11303386 2.1679096 3.5733111e-43
0.32902667 -0.1136334 2.1671822 3.5733111e-43
0.34898719 -0.11670941 2.1650004 3.5733111e-43
0.3630434 -0.11670941 2.1650002 3.5733111e-43
-0.2926918 -0.091065258 2.1676669 3.5733111e-43
-0.20548011 -0.092620321 2.1650004 3.5733111e-43
-0.1887241 -0.091906443 2.1682005 3.5733111e-43
-0.16986908 -0.089644447 2.1718574 3.5733111e-43
-0.15056257 -0.088932879 2.1729999 3.5733111e-43
-0.12937032 -0.090675332 2.1724668 3.5733111e-43
-0.10982656 -0.090555705 2.1694803 3.5733111e-43
-0.090075642 -0.090722531 2.1677592 3.5733111e-43
-0.069185033 -0.092118464 2.1650007 3.5733111e-43
-0.049857751 -0.090972908 2.1650007 3.5733111e-43
-0.037558582 -0.095631465 2.1650002 3.5733111e-43
-0.0094461609 -0.097387955 2.1650002 3.5733111e-43
0.0098811258 -0.090361968 2.1650007 3.5733111e-43
0.028706413 -0.089860126 2.1650007 3.5733111e-43
0.043264624 -0.083335988 2.1650002 3.5733111e-43
-0.28406504 -0.072925024 2.1690001 3.5733111e-43
-0.27246109 -0.065850966 2.1676669 3.5733111e-43
-0.24488768 -0.062258042 2.1650002 3.5733111e-43
-0.18339175 -0.076310009 2.1650002 3.5733111e-43
-0.17116836 -0.07107494 2.1660006 3.5733111e-43
-0.1504478 -0.06949272 2.1714003 3.5733111e-43
-0.12938227 -0.071579739 2.1657064 3.5733111e-43
-0.11486773 -0.078066505 2.1650002 3.5733111e-43
-0.0024180557 -0.072797015 2.1650004 3.5733111e-43
0.010123475 -0.071222231 2.1650007 3.5733111e-43
0.029208418 -0.071040526 2.1650007 3.5733111e-43
0.043264624 -0.071040519 2.1650004 3.5733111e-43
-0.42214444 -0.04133226 2.1730001 3.5733111e-43
-0.40929258 -0.046373166 2.1703336 3.5733111e-43
-0.39145082 -0.056165334 2.1718574 3.5733111e-43
-0.36901125 -0.057164032 2.1716669 3.5733111e-43
-0.34935722 -0.050080393 2.1700003 3.5733111e-43
-0.33432451 -0.042406138 2.1676667 3.5733111e-43
-0.28705889 -0.042037454 2.1730001 3.5733111e-43
-0.26884407 -0.049278129 2.1711338 3.5733111e-43
-0.24966705 -0.04875233 2.1672862 3.5733111e-43
-0.2325885 -0.046059258 2.1650004 3.5733111e-43
-0.21572106 -0.042585291 2.1650002 3.5733111e-43
-0.16640717 -0.057574052 2.1650002 3.5733111e-43
-0.14882888 -0.053354166 2.166455 3.5733111e-43
-0.13469703 -0.055733915 2.1650002 3.5733111e-43
0.010962374 -0.050503034 2.1650007 3.5733111e-43
0.028329907 -0.050840814 2.1650007 3.5733111e-43
0.043670092 -0.050367914 2.1650004 3.5733111e-43
-0.42214441 -0.028991351 2.1730001 3.5733111e-43
-0.41356221 -0.028884621 2.1650002 3.5733111e-43
-0.32636589 -0.030667718 2.1667781 3.5733111e-43
-0.30916214 -0.027219635 2.1722002 3.5733111e-43
-0.2896373 -0.028687384 2.1730001 3.5733111e-43
-0.27136359 -0.029872838 2.1729999 3.5733111e-43
-0.24864133 -0.031703632 2.1730001 3.5733111e-43
-0.2293631 -0.028918028 2.1676672 3.5733111e-43
-0.21572107 -0.029938519 2.1650004 3.5733111e-43
0.010251027 -0.032674957 2.1650004 3.5733111e-43
0.024256798 -0.033834748 2.1650004 3.5733111e-43
-0.51208389 -0.0084231803 2.1730001 3.5733111e-43
-0.41068158 -0.0098923361 2.1730001 3.5733111e-43
-0.34503818 -0.0042936802 2.1650002 3.5733111e-43
-0.3291457 -0.0084903454 2.1680772 3.5733111e-43
-0.30920163 -0.00959442 2.1724668 3.5733111e-43
-0.2917369 -0.010526395 2.1730001 3.5733111e-43
-0.27929944 -0.016650449 2.1730001 3.5733111e-43
-0.24589634 -0.0075244047 2.1730001 3.5733111e-43
-0.2303662 -0.010583605 2.1676669 3.5733111e-43
-0.52442849 0.01684629 2.1730001 3.5733111e-43
-0.51244247 0.012019295 2.170455 3.5733111e-43
-0.38982624 0.0050437376 2.1705387 3.5733111e-43
-0.36927089 0.0078158034 2.1701767 3.5733111e-43
-0.35236406 0.0030931935 2.1690001 3.5733111e-43
-0.30751574 0.00097941293 2.1730001 3.5733111e-43
-0.28974086 0.009786074 2.1719334 3.5733111e-43
-0.27102903 0.0091459015 2.1696455 3.5733111e-43
-0.25100121 0.0056607975 2.1672227 3.5733111e-43
-0.23750818 0.0030836021 2.1650002 3.5733111e-43
-0.54030019 0.039765112 2.1730001 3.5733111e-43
-0.52783251 0.032232974 2.1706669 3.5733111e-43
-0.50938278 0.031128932 2.1679718 3.5733111e-43
-0.3886376 0.039765112 2.1730001 3.5733111e-43
-0.37629294 0.039765112 2.1730001 3.5733111e-43
-0.30386436 0.035047553 2.1721113 3.5733111e-43
-0.29256168 0.027594417 2.1667147 3.5733111e-43
-0.54318601 0.048419774 2.1730001 3.5733111e-43
-0.52873939 0.05021112 2.1670876 3.5733111e-43
-0.50869256 0.052416045 2.1650004 3.5733111e-43
-0.49173734 0.050830089 2.168035 3.5733111e-43
-0.4768135 0.057394978 2.1730001 3.5733111e-43
-0.42214444 0.057394978 2.1730001 3.5733111e-43
-0.40805626 0.051928364 2.169632 3.5733111e-43
-0.38962898 0.050240278 2.1687338 3.5733111e-43
-0.37581202 0.050984118 2.1730001 3.5733111e-43
-0.32162389 0.057394978 2.1730001 3.5733111e-43
-0.30971906 0.049745727 2.1690004 3.5733111e-43
-0.29935551 0.044888206 2.1650002 3.5733111e-43
-0.52490491 0.062530085 2.1676667 3.5733111e-43
-0.5088222 0.066906385 2.169364 3.5733111e-43
-0.48917925 0.068991579 2.1678891 3.5733111e-43
-0.47111624 0.071592994 2.1717696 3.5733111e-43
-0.45036075 0.073261857 2.1730001 3.5733111e-43
-0.42867976 0.070150703 2.1729996 3.5733111e-43
-0.40950203 0.069685832 2.1714003 3.5733111e-43
-0.38944307 0.068680748 2.1650007 3.5733111e-43
-0.36925456 0.067400701 2.167371 3.5733111e-43
-0.35063499 0.068800561 2.1690004 3.5733111e-43
-0.3315644 0.065825127 2.1688099 3.5733111e-43
-0.31692576 0.062453158 2.1650002 3.5733111e-43
-0.4878985 0.082580499 2.1730001 3.5733111e-43
-0.46843672 0.086484253 2.1730001 3.5733111e-43
-0.45036077 0.087365746 2.1730001 3.5733111e-43
-0.4281913 0.089080334 2.1718969 3.5733111e-43
-0.40922859 0.090296358 2.1661041 3.5733111e-43
-0.39599195 0.085287608 2.1650002 3.5733111e-43
-0.42701715 0.1096087 2.1695716 3.5733111e-43
-0.41595814 0.10796237 2.1650004 3.5733111e-43
-0.62142205 0.13849235 2.1730001 3.5733111e-43
-0.60699582 0.13551861 2.1706002 3.5733111e-43
-0.5901565 0.13158447 2.1690001 3.5733111e-43
-0.57006598 0.12739569 2.1680002 3.5733111e-43
-0.54939169 0.12739567 2.1680005 3.5733111e-43
-0.53401989 0.13295496 2.1690001 3.5733111e-43
-0.4283241 0.13122164 2.169364 3.5733111e-43
-0.41883329 0.12041752 2.1650002 3.5733111e-43
-0.66021943 0.15788519 2.1730001 3.5733111e-43
-0.64963835 0.15788519 2.1730001 3.5733111e-43
-0.62924284 0.15305614 2.1730001 3.5733111e-43
-0.61043799 0.15103705 2.1663799 3.5733111e-43
-0.59629291 0.14149548 2.1650002 3.5733111e-43
-0.5238024 0.14465599 2.1672857 3.5733111e-43
-0.51041788 0.15324436 2.1686366 3.5733111e-43
-0.49407941 0.15776893 2.1714003 3.5733111e-43
-0.44624582 0.15494688 2.1730001 3.5733111e-43
-0.43512854 0.14980945 2.1680772 3.5733111e-43
-0.66374648 0.1702261 2.1730001 3.5733111e-43
-0.64944911 0.17017439 2.1723602 3.5733111e-43
-0.63033259 0.16977072 2.1672406 3.5733111e-43
-0.6109767 0.16997579 2.1650007 3.5733111e-43
-0.48428532 0.16448173 2.1670001 3.5733111e-43
-0.47093511 0.16493714 2.1730001 3.5733111e-43
-0.45113334 0.16457282 2.1682003 3.5733111e-43
-0.66021943 0.18432999 2.1730001 3.5733111e-43
-0.64882439 0.18853401 2.1730001 3.5733111e-43
-0.63053608 0.18918009 2.1679337 3.5733111e-43
-0.61034918 0.1889209 2.1650007 3.5733111e-43
-0.59629291 0.18365137 2.1650002 3.5733111e-43
-0.64258426 0.20548582 2.1730001 3.5733111e-43
-0.63100266 0.21043743 2.1695337 3.5733111e-43
-0.61396652 0.20638247 2.1650004 3.5733111e-43
-0.63013786 0.23075204 2.1678576 3.5733111e-43
-0.64463812 0.25725612 2.171 3.5733111e-43
-0.63093591 0.24995545 2.1679635 3.5733111e-43
-0.68420333 0.27494746 2.1730001 3.5733111e-43
-0.66848141 0.27218091 2.1683338 3.5733111e-43
-0.6491462 0.26700789 2.1667781 3.5733111e-43
-0.63099414 0.26225457 2.1650002 3.5733111e-43
-0.70634234 0.29227898 2.1730001 3.5733111e-43
-0.6907289 0.29053235 2.1703336 3.5733111e-43
-0.67557877 0.29057807 2.1650004 3.5733111e-43
0.20738086 0.2908574 2.1672859 3.5733111e-43
0.22804588 0.29174781 2.1676667 3.5733111e-43
0.24707966 0.29782361 2.1650002 3.5733111e-43
-0.74266392 0.30994275 2.1730001 3.5733111e-43
-0.73781425 0.31126499 2.1730001 3.5733111e-43
-0.70851272 0.30923077 2.1730001 3.5733111e-43
-0.69110453 0.31033316 2.1714003 3.5733111e-43
-0.6707269 0.31107715 2.1650007 3.5733111e-43
-0.64900374 0.31363207 2.1650004 3.5733111e-43
-0.62961018 0.31176311 2.1697276 3.5733111e-43
-0.61098826 0.3106311 2.1685205 3.5733111e-43
-0.59190041 0.31451032 2.1650004 3.5733111e-43
0.19508709 0.30950201 2.1730001 3.5733111e-43
0.20037766 0.30950201 2.1730001 3.5733111e-43
0.25133449 0.311041 2.1714003 3.5733111e-43
-0.98823386 0.33065784 2.1730001 3.5733111e-43
-0.74390644 0.33370301 2.1730001 3.5733111e-43
-0.73300475 0.33466461 2.1730001 3.5733111e-43
-0.70791113 0.33180764 2.1730001 3.5733111e-43
-0.6901992 0.33065784 2.1729994 3.5733111e-43
-0.66983867 0.33017707 2.1729999 3.5733111e-43
-0.65156215 0.3247278 2.1730001 3.5733111e-43
-0.6372937 0.32184291 2.1730001 3.5733111e-43
-0.60025978 0.32536888 2.1730001 3.5733111e-43
-0.58811116 0.32953984 2.1698005 3.5733111e-43
-0.57637995 0.33236802 2.1650002 3.5733111e-43
0.075476773 0.33588099 2.1650002 3.5733111e-43
0.087692283 0.32592756 2.1650004 3.5733111e-43
0.23564804 0.33829746 2.1730001 3.5733111e-43
0.24600415 0.32946715 2.1710002 3.5733111e-43
-0.76657319 0.35249174 2.1730001 3.5733111e-43
-0.74985868 0.35129741 2.1713998 3.5733111e-43
-0.72955137 0.35089162 2.1722727 3.5733111e-43
-0.709598 0.35005075 2.1730001 3.5733111e-43
-0.69019926 0.35005066 2.1730001 3.5733111e-43
-0.67080057 0.35143048 2.1730001 3.5733111e-43
-0.58492535 0.34777951 2.1708186 3.5733111e-43
-0.5743202 0.35139531 2.1662312 3.5733111e-43
0.21018212 0.35227498 2.1650002 3.5733111e-43
0.22628236 0.3456699 2.1676667 3.5733111e-43
-0.78339446 0.37256271 2.1730001 3.5733111e-43
-0.76999056 0.36858279 2.1711543 3.5733111e-43
-0.75060833 0.37008217 2.1650007 3.5733111e-43
-0.72928274 0.36873972 2.1668291 3.5733111e-43
-0.71046036 0.36866361 2.168467 3.5733111e-43
-0.69084811 0.36852831 2.1676667 3.5733111e-43
-0.66961294 0.36857861 2.1682434 3.5733111e-43
-0.65023321 0.36971462 2.1717877 3.5733111e-43
-0.63161129 0.37159839 2.1730001 3.5733111e-43
-0.61260444 0.3782585 2.1730001 3.5733111e-43
-0.58262461 0.36415461 2.1730001 3.5733111e-43
-0.57134855 0.36952987 2.1675267 3.5733111e-43
-0.55939537 0.37686592 2.1650002 3.5733111e-43
-0.021745345 0.37686592 2.1650002 3.5733111e-43
-0.84362537 0.39941433 2.1730001 3.5733111e-43
-0.82951725 0.39941433 2.1730001 3.5733111e-43
-0.8101185 0.39941433 2.1730001 3.5733111e-43
-0.78624332 0.39127749 2.1730001 3.5733111e-43
-0.76990771 0.38988039 2.1690004 3.5733111e-43
-0.75091124 0.38916126 2.1650007 3.5733111e-43
-0.72963816 0.38947824 2.1654332 3.5733111e-43
-0.71094114 0.39008197 2.1691294 3.5733111e-43
-0.69084799 0.38964927 2.1676672 3.5733111e-43
-0.66953075 0.38952786 2.1670005 3.5733111e-43
-0.65017277 0.38976777 2.1706474 3.5733111e-43
-0.63023961 0.39059937 2.1729994 3.5733111e-43
-0.60932934 0.39075059 2.1729996 3.5733111e-43
-0.5896787 0.3956365 2.1730001 3.5733111e-43
-0.57019413 0.39017868 2.1678576 3.5733111e-43
-0.55939537 0.38740489 2.1650002 3.5733111e-43
-0.06039992 0.39618737 2.1650002 3.5733111e-43
-0.049976099 0.39566055 2.1698003 3.5733111e-43
-0.034506962 0.39137608 2.1714003 3.5733111e-43
-0.86214232 0.41439971 2.1730001 3.5733111e-43
-0.84759325 0.41131449 2.1730001 3.5733111e-43
-0.8295173 0.40999237 2.1730001 3.5733111e-43
-0.81011856 0.4099924 2.1730001 3.5733111e-43
-0.7889564 0.40999234 2.1730001 3.5733111e-43
-0.76976353 0.40916473 2.1686006 3.5733111e-43
-0.75045913 0.4103075 2.1658428 3.5733111e-43
